ply
format ascii 1.0
comment VCGLIB generated
element vertex 907
property float x
property float y
property float z
property float nx
property float ny
property float nz
property uchar red
property uchar green
property uchar blue
property uchar alpha
element face 0
property list uchar int vertex_indices
end_header
0.00579096 0.098749 -0.0387482 0 0 0 137 255 0 255 
0.00603952 0.114085 -0.0404114 0 0 0 137 255 0 255 
0.00554063 0.108258 -0.0370732 0 0 0 136 255 0 255 
0.00179453 0.052737 -0.0120075 0 0 0 131 255 0 255 
0.0018863 0.192989 -0.0126215 0 0 0 131 255 0 255 
-0.00850273 0.052025 0.0568932 0 0 0 115 255 0 255 
-0.00879757 0.031653 0.058866 0 0 0 115 255 0 255 
-0.00316949 0.007852996 0.0212076 0 0 0 123 255 0 255 
-0.00231837 0.004032993 0.0155126 0 0 0 124 255 0 255 
-0.0229247 0.072541 0.153393 0 0 0 93 255 0 255 
-0.0267896 0.04998 0.179254 0 0 0 87 255 0 255 
-0.0261343 0.03643099 0.174869 0 0 0 88 255 0 255 
-0.00812564 0.006184995 0.0543699 0 0 0 115 255 0 255 
-0.0268567 0.02337199 0.179702 0 0 0 86 255 0 255 
-0.00897526 0.003398991 0.0600549 0 0 0 114 255 0 255 
-0.0264607 0.015596 0.177053 0 0 0 87 255 0 255 
-0.0271679 0.005436993 0.181785 0 0 0 86 255 0 255 
-0.0265348 0.003035998 0.177548 0 0 0 87 255 0 255 
-0.027123 -0.005400002 0.181484 0 0 0 86 255 0 255 
-0.0273585 -0.006615007 0.18306 0 0 0 85 255 0 255 
-0.0269101 -0.016135 0.18006 0 0 0 86 255 0 255 
-0.0101079 -0.014915 0.0676338 0 0 0 112 255 0 255 
-0.00776251 -0.01520801 0.0519402 0 0 0 116 255 0 255 
-0.00649372 -0.01519301 0.0434505 0 0 0 118 255 0 255 
0.0053362 -0.012633 -0.0357054 0 0 0 136 255 0 255 
0.0155871 -0.008108008 -0.104296 0 0 0 152 255 0 255 
0.026073 -0.006155002 -0.174459 0 0 0 169 255 0 255 
0.00958233 0.018917 -0.0641169 0 0 0 143 255 0 255 
0.00942964 0.022574 -0.0630952 0 0 0 142 255 0 255 
0.0105308 0.026255 -0.0704631 0 0 0 145 255 0 255 
0.0102628 0.02942899 -0.06867 0 0 0 144 255 0 255 
0.0104775 0.031214 -0.0701064 0 0 0 144 255 0 255 
0.00987611 0.03015399 -0.0660826 0 0 0 143 255 0 255 
0.0109592 0.040324 -0.0733299 0 0 0 145 255 0 255 
0.00899962 0.04246199 -0.0602179 0 0 0 142 255 0 255 
0.00858982 0.048956 -0.0574759 0 0 0 142 255 0 255 
0.0071814 0.041714 -0.0480519 0 0 0 139 255 0 255 
0.00816175 0.04937999 -0.0546116 0 0 0 141 255 0 255 
0.00681228 0.045406 -0.0455821 0 0 0 139 255 0 255 
0.0102865 0.079799 -0.0688285 0 0 0 144 255 0 255 
0.00630345 0.06161899 -0.0421774 0 0 0 138 255 0 255 
0.00589019 0.05877299 -0.0394122 0 0 0 137 255 0 255 
0.00720865 0.09526799 -0.0482342 0 0 0 139 255 0 255 
0.00248105 0.030092 -0.0166011 0 0 0 132 255 0 255 
0.00310841 0.044845 -0.0207989 0 0 0 133 255 0 255 
0.00330453 0.049816 -0.0221111 0 0 0 133 255 0 255 
0.0031251 0.04782599 -0.0209106 0 0 0 133 255 0 255 
0.00273836 0.04731699 -0.0183228 0 0 0 132 255 0 255 
0.0053843 0.124161 -0.0360272 0 0 0 136 255 0 255 
0.0019358 0.129464 -0.0129527 0 0 0 131 255 0 255 
-0.000132676 0.106197 0.000837697 0 0 0 128 255 0 255 
-0.00330604 0.078982 0.0208735 0 0 0 123 255 0 255 
-0.00290966 0.06351999 0.0183709 0 0 0 124 255 0 255 
-0.00370938 0.062666 0.0234201 0 0 0 122 255 0 255 
-0.00406316 0.06759299 0.0256538 0 0 0 121 255 0 255 
-0.0031644 0.049465 0.0199792 0 0 0 123 255 0 255 
-0.00273676 0.03969799 0.0172792 0 0 0 124 255 0 255 
-0.00333736 0.04526 0.0210713 0 0 0 123 255 0 255 
-0.00315726 0.041837 0.0199342 0 0 0 123 255 0 255 
-0.00268266 0.02902299 0.0169376 0 0 0 124 255 0 255 
-0.00291206 0.03085599 0.0183861 0 0 0 124 255 0 255 
-0.00305078 0.02024399 0.0192619 0 0 0 124 255 0 255 
-0.00289087 0.01722 0.0182523 0 0 0 124 255 0 255 
-0.00952828 0.037551 0.0601592 0 0 0 113 255 0 255 
-0.0090852 0.032626 0.0573617 0 0 0 114 255 0 255 
-0.00976552 0.02295699 0.0616571 0 0 0 113 255 0 255 
-0.010065 0.02206299 0.0635478 0 0 0 112 255 0 255 
-0.0094247 0.01086199 0.0595052 0 0 0 113 255 0 255 
-0.009665309 0.01090699 0.0610244 0 0 0 113 255 0 255 
-0.00827045 0.00599699 0.0522176 0 0 0 115 255 0 255 
-0.00991437 0.003907001 0.0625969 0 0 0 112 255 0 255 
-0.0269831 -0.01121 0.170365 0 0 0 86 255 0 255 
-0.009047001 -0.010569 0.0571205 0 0 0 114 255 0 255 
-0.00881281 -0.01141901 0.0556419 0 0 0 115 255 0 255 
-0.00919433 -0.01208601 0.0580507 0 0 0 114 255 0 255 
-0.00898639 -0.01224401 0.0567378 0 0 0 114 255 0 255 
-0.009467999 -0.013371 0.0597786 0 0 0 113 255 0 255 
-0.00759999 -0.014995 0.0479844 0 0 0 116 255 0 255 
-0.00646615 -0.01530601 0.0408257 0 0 0 118 255 0 255 
-0.00589768 -0.01536701 0.0372365 0 0 0 119 255 0 255 
-0.00457714 -0.015541 0.028899 0 0 0 121 255 0 255 
-0.00240408 -0.014371 0.0151788 0 0 0 124 255 0 255 
0.00348451 -0.01338401 -0.0220003 0 0 0 133 255 0 255 
0.00489049 -0.01312201 -0.0308774 0 0 0 136 255 0 255 
0.00658814 -0.01204801 -0.0415959 0 0 0 138 255 0 255 
0.00707729 -0.01145901 -0.0446843 0 0 0 139 255 0 255 
0.00783457 -0.010651 -0.0494656 0 0 0 140 255 0 255 
0.00819798 -0.01056601 -0.05176 0 0 0 141 255 0 255 
0.00865399 -0.01057 -0.0546392 0 0 0 142 255 0 255 
0.009120801 -0.009781003 -0.0575865 0 0 0 142 255 0 255 
0.0102096 -0.00920701 -0.0644611 0 0 0 144 255 0 255 
0.0134349 -0.009501005 -0.0848248 0 0 0 149 255 0 255 
0.0158183 -0.00908401 -0.0998726 0 0 0 152 255 0 255 
0.0255602 -0.006606007 -0.161381 0 0 0 168 255 0 255 
0.0105774 0.017624 -0.066783 0 0 0 145 255 0 255 
0.0109412 0.02123599 -0.06908 0 0 0 145 255 0 255 
0.00976849 0.024118 -0.0616758 0 0 0 143 255 0 255 
0.010592 0.02702299 -0.0668755 0 0 0 145 255 0 255 
0.0106993 0.02882099 -0.0675528 0 0 0 145 255 0 255 
0.0112934 0.03128899 -0.07130381 0 0 0 145 255 0 255 
0.0116785 0.03585 -0.0737353 0 0 0 146 255 0 255 
0.00997633 0.033319 -0.0629881 0 0 0 143 255 0 255 
0.0117274 0.04127699 -0.074044 0 0 0 146 255 0 255 
0.0103704 0.03815299 -0.065476 0 0 0 144 255 0 255 
0.00945709 0.03645099 -0.0597098 0 0 0 142 255 0 255 
0.00987755 0.03941799 -0.0623644 0 0 0 143 255 0 255 
0.0105533 0.043008 -0.066631 0 0 0 145 255 0 255 
0.0100053 0.042218 -0.0631711 0 0 0 143 255 0 255 
0.00985385 0.04399199 -0.0622148 0 0 0 143 255 0 255 
0.0361296 0.180774 -0.228113 0 0 0 183 255 0 255 
0.00916653 0.04276799 -0.0578752 0 0 0 142 255 0 255 
0.00964925 0.046414 -0.060923 0 0 0 143 255 0 255 
0.00934544 0.045461 -0.0590048 0 0 0 142 255 0 255 
0.00908852 0.045838 -0.0573827 0 0 0 142 255 0 255 
0.00851153 0.043668 -0.0537397 0 0 0 141 255 0 255 
0.008124701 0.044286 -0.0512974 0 0 0 141 255 0 255 
0.00819058 0.04828 -0.0517133 0 0 0 141 255 0 255 
0.010011 0.068294 -0.0632067 0 0 0 143 255 0 255 
0.009640421 0.06795499 -0.0608672 0 0 0 143 255 0 255 
0.0130073 0.115982 -0.0821248 0 0 0 148 255 0 255 
0.00310002 0.03112099 -0.0195728 0 0 0 133 255 0 255 
0.00776659 0.096509 -0.0490363 0 0 0 140 255 0 255 
0.0028468 0.03528 -0.017974 0 0 0 133 255 0 255 
0.00591214 0.09574399 -0.0373278 0 0 0 137 255 0 255 
0.00613044 0.111696 -0.038706 0 0 0 137 255 0 255 
-0.00106735 0.112903 0.00673902 0 0 0 127 255 0 255 
-0.00272054 0.071857 0.0171769 0 0 0 124 255 0 255 
-0.00272663 0.059486 0.0172153 0 0 0 124 255 0 255 
-0.00297674 0.03456199 0.0187944 0 0 0 124 255 0 255 
-0.00272917 0.020987 0.0172313 0 0 0 124 255 0 255 
-0.00328682 0.02398599 0.0207522 0 0 0 123 255 0 255 
-0.00940824 0.06006099 0.0594013 0 0 0 113 255 0 255 
-0.00248662 0.007786 0.0156999 0 0 0 124 255 0 255 
-0.00950116 0.03567899 0.059988 0 0 0 113 255 0 255 
-0.0104442 0.02248399 0.0659422 0 0 0 112 255 0 255 
-0.00891165 -0.01351401 0.056266 0 0 0 114 255 0 255 
0.00539585 -0.01296301 -0.034068 0 0 0 136 255 0 255 
0.00590571 -0.012552 -0.0372872 0 0 0 137 255 0 255 
0.00681616 -0.01180401 -0.0430356 0 0 0 139 255 0 255 
0.0110876 -0.009180009 -0.07000431 0 0 0 145 255 0 255 
0.0151106 -0.009535003 -0.0954044 0 0 0 151 255 0 255 
0.0101166 -0.003024006 -0.0638736 0 0 0 144 255 0 255 
0.0112218 -0.00194701 -0.0708519 0 0 0 145 255 0 255 
0.010381 0.016641 -0.06554341 0 0 0 144 255 0 255 
0.0101212 0.01656899 -0.06390291 0 0 0 144 255 0 255 
0.0103342 0.02287099 -0.0652478 0 0 0 144 255 0 255 
0.0104869 0.024149 -0.0662118 0 0 0 144 255 0 255 
0.0102325 0.02532799 -0.0646058 0 0 0 144 255 0 255 
0.0118035 0.03790699 -0.0745245 0 0 0 146 255 0 255 
0.0120058 0.039869 -0.0758016 0 0 0 147 255 0 255 
0.0103341 0.04082799 -0.0652471 0 0 0 144 255 0 255 
0.0101947 0.043774 -0.064367 0 0 0 144 255 0 255 
0.00872357 0.04379599 -0.0550785 0 0 0 142 255 0 255 
0.00888152 0.05079199 -0.0560757 0 0 0 142 255 0 255 
0.0092972 0.065358 -0.0587002 0 0 0 142 255 0 255 
0.007424131 0.063093 -0.0468741 0 0 0 139 255 0 255 
0.00706427 0.060551 -0.044602 0 0 0 139 255 0 255 
0.00267323 0.02826799 -0.0168781 0 0 0 132 255 0 255 
0.00211989 0.055501 -0.0133844 0 0 0 131 255 0 255 
0.00174503 0.054463 -0.0110177 0 0 0 130 255 0 255 
0.00188985 0.06394999 -0.011932 0 0 0 131 255 0 255 
-0.0024414 0.08053 0.0145892 0 0 0 124 255 0 255 
-0.00240119 0.06418699 0.0143489 0 0 0 124 255 0 255 
-0.00310132 0.065437 0.0185328 0 0 0 123 255 0 255 
-0.00336227 0.06489199 0.0200922 0 0 0 123 255 0 255 
-0.00374936 0.071081 0.0224053 0 0 0 122 255 0 255 
-0.00351028 0.053238 0.0209766 0 0 0 123 255 0 255 
-0.00325941 0.03896899 0.0194775 0 0 0 123 255 0 255 
-0.00335045 0.036279 0.0200215 0 0 0 123 255 0 255 
-0.00314044 0.027546 0.0187666 0 0 0 123 255 0 255 
-0.00299865 0.025615 0.0179192 0 0 0 124 255 0 255 
-0.00229265 0.011015 0.0137003 0 0 0 124 255 0 255 
-0.009721871 0.055864 0.0580956 0 0 0 113 255 0 255 
-0.00279332 0.012298 0.0166922 0 0 0 124 255 0 255 
-0.009720461 0.05376799 0.0580872 0 0 0 113 255 0 255 
-0.0101727 0.05583299 0.0607896 0 0 0 112 255 0 255 
-0.00371998 0.01671799 0.0222297 0 0 0 122 255 0 255 
-0.00369116 0.011174 0.0220575 0 0 0 122 255 0 255 
-0.00928866 0.031723 0.0555069 0 0 0 114 255 0 255 
-0.0102169 0.03038 0.0610536 0 0 0 112 255 0 255 
-0.027699 0.088268 0.165523 0 0 0 85 255 0 255 
-0.0268819 0.05650599 0.16064 0 0 0 86 255 0 255 
-0.026691 0.050883 0.159499 0 0 0 87 255 0 255 
-0.0270661 0.049473 0.161741 0 0 0 86 255 0 255 
-0.0265322 0.04414799 0.15855 0 0 0 87 255 0 255 
-0.009632261 0.011322 0.0575602 0 0 0 113 255 0 255 
-0.0264962 0.038016 0.158335 0 0 0 87 255 0 255 
-0.0266321 0.035232 0.159147 0 0 0 87 255 0 255 
-0.00937427 0.00675 0.0560184 0 0 0 113 255 0 255 
-0.0268297 0.026598 0.160328 0 0 0 86 255 0 255 
-0.0269012 0.024841 0.160756 0 0 0 86 255 0 255 
-0.0267327 0.023743 0.159748 0 0 0 87 255 0 255 
-0.0268365 0.021845 0.160369 0 0 0 86 255 0 255 
-0.0266856 0.020608 0.159467 0 0 0 87 255 0 255 
-0.0102138 0.003009999 0.0610351 0 0 0 112 255 0 255 
-0.0267525 0.014007 0.159866 0 0 0 87 255 0 255 
-0.0269031 0.012132 0.160767 0 0 0 86 255 0 255 
-0.009065771 0.0004709959 0.0541749 0 0 0 114 255 0 255 
-0.0273432 0.010587 0.163396 0 0 0 85 255 0 255 
-0.0265496 0.008190989 0.158654 0 0 0 87 255 0 255 
-0.01008 -0.001063001 0.0602357 0 0 0 112 255 0 255 
-0.00962557 -0.001944005 0.0575201 0 0 0 113 255 0 255 
-0.0270559 0.002515996 0.16168 0 0 0 86 255 0 255 
-0.027557 0.001743996 0.164674 0 0 0 85 255 0 255 
-0.0271348 0.0005629897 0.162151 0 0 0 86 255 0 255 
-0.00942365 -0.004377007 0.0563136 0 0 0 113 255 0 255 
-0.00967164 -0.004680002 0.0577955 0 0 0 113 255 0 255 
-0.009472921 -0.005751002 0.0566079 0 0 0 113 255 0 255 
-0.00983514 -0.006105006 0.0587725 0 0 0 113 255 0 255 
-0.00961357 -0.007479 0.0574485 0 0 0 113 255 0 255 
-0.00946924 -0.008823002 0.0565859 0 0 0 113 255 0 255 
-0.00906267 -0.01492901 0.0541564 0 0 0 114 255 0 255 
-0.00780642 -0.01526901 0.0466493 0 0 0 116 255 0 255 
-0.00746382 -0.015388 0.044602 0 0 0 116 255 0 255 
-0.00543432 -0.015303 0.0324742 0 0 0 120 255 0 255 
-0.0045779 -0.015336 0.0273565 0 0 0 121 255 0 255 
0.00233277 -0.01351401 -0.0139401 0 0 0 132 255 0 255 
0.00393314 -0.01349701 -0.0235035 0 0 0 134 255 0 255 
0.00461793 -0.013354 -0.0275957 0 0 0 135 255 0 255 
0.00659527 -0.01218101 -0.0394118 0 0 0 138 255 0 255 
0.00804661 -0.010825 -0.0480847 0 0 0 140 255 0 255 
0.00938744 -0.01003901 -0.0560972 0 0 0 142 255 0 255 
0.009939821 -0.009608007 -0.0593981 0 0 0 143 255 0 255 
0.0105447 -0.00876801 -0.0630128 0 0 0 145 255 0 255 
0.017207 -0.008072007 -0.102825 0 0 0 154 255 0 255 
0.0101148 -0.006405008 -0.0604434 0 0 0 144 255 0 255 
0.0106288 -0.004578006 -0.0635154 0 0 0 145 255 0 255 
0.0108668 -0.002198005 -0.06493741 0 0 0 145 255 0 255 
0.0103133 0.01057999 -0.0616301 0 0 0 144 255 0 255 
0.0103803 0.01467899 -0.0620305 0 0 0 144 255 0 255 
0.0123577 0.02346 -0.0738467 0 0 0 147 255 0 255 
0.0101505 0.01922599 -0.0606572 0 0 0 144 255 0 255 
0.0114401 0.02567999 -0.0683632 0 0 0 145 255 0 255 
0.0111083 0.02575999 -0.0663809 0 0 0 145 255 0 255 
0.0106226 0.026826 -0.0634784 0 0 0 145 255 0 255 
0.0107566 0.02919799 -0.0642789 0 0 0 145 255 0 255 
0.0112544 0.03183099 -0.0672537 0 0 0 145 255 0 255 
0.0114548 0.03356899 -0.0684513 0 0 0 145 255 0 255 
0.0122087 0.037278 -0.0729561 0 0 0 147 255 0 255 
0.0108581 0.034042 -0.0648853 0 0 0 145 255 0 255 
0.0113859 0.037067 -0.0680392 0 0 0 145 255 0 255 
0.0108122 0.036034 -0.0646113 0 0 0 145 255 0 255 
0.0104912 0.036477 -0.062693 0 0 0 144 255 0 255 
0.0102548 0.037007 -0.0612803 0 0 0 144 255 0 255 
0.00994344 0.047025 -0.0594197 0 0 0 143 255 0 255 
0.009558881 0.051914 -0.0571217 0 0 0 143 255 0 255 
0.0359129 0.235602 -0.214607 0 0 0 183 255 0 255 
0.0112238 0.071023 -0.0670709 0 0 0 145 255 0 255 
0.0108598 0.069371 -0.0648958 0 0 0 145 255 0 255 
0.00936996 0.065736 -0.0559927 0 0 0 142 255 0 255 
0.0104206 0.08051798 -0.0622712 0 0 0 144 255 0 255 
0.00338978 0.03243599 -0.0202566 0 0 0 133 255 0 255 
0.00300367 0.03061999 -0.0179492 0 0 0 133 255 0 255 
0.00647611 0.09754999 -0.0386997 0 0 0 138 255 0 255 
-0.00339642 0.07602799 0.0202962 0 0 0 123 255 0 255 
-0.00722077 0.132193 0.0431497 0 0 0 117 255 0 255 
-0.00331716 0.022918 0.0198226 0 0 0 123 255 0 255 
-0.00260048 0.01530399 0.0155399 0 0 0 124 255 0 255 
-0.00989422 0.061726 0.0591256 0 0 0 112 255 0 255 
-0.00347064 0.014825 0.0207398 0 0 0 123 255 0 255 
-0.00321223 0.01147599 0.0191955 0 0 0 123 255 0 255 
-0.0098275 0.032933 0.0587268 0 0 0 113 255 0 255 
-0.00964994 0.03030499 0.0576658 0 0 0 113 255 0 255 
-0.00300458 0.004425991 0.0179547 0 0 0 124 255 0 255 
-0.0104414 0.02152799 0.0623954 0 0 0 112 255 0 255 
-0.0271229 0.05828899 0.16208 0 0 0 86 255 0 255 
-0.0264329 0.046074 0.157957 0 0 0 87 255 0 255 
-0.0269712 0.04398899 0.161174 0 0 0 86 255 0 255 
-0.026839 0.038764 0.160384 0 0 0 86 255 0 255 
-0.0271157 0.03710599 0.162037 0 0 0 86 255 0 255 
-0.0271169 0.035015 0.162044 0 0 0 86 255 0 255 
-0.0268956 0.033747 0.160722 0 0 0 86 255 0 255 
-0.0274292 0.02730399 0.16391 0 0 0 85 255 0 255 
-0.0271373 0.02122699 0.162166 0 0 0 86 255 0 255 
-0.0262629 0.011725 0.156941 0 0 0 88 255 0 255 
-0.0269159 0.01034399 0.160843 0 0 0 86 255 0 255 
-0.0270877 0.007555997 0.16187 0 0 0 86 255 0 255 
-0.00836719 -0.01514101 0.0500004 0 0 0 115 255 0 255 
-0.00386959 -0.01477101 0.0231237 0 0 0 122 255 0 255 
0.00345517 -0.013246 -0.0206473 0 0 0 133 255 0 255 
0.00777156 -0.01125201 -0.046441 0 0 0 140 255 0 255 
0.008882171 -0.01053801 -0.0530778 0 0 0 142 255 0 255 
0.018496 -0.007813001 -0.110528 0 0 0 157 255 0 255 
0.0103645 -0.004384005 -0.0619358 0 0 0 144 255 0 255 
0.0100951 -0.002931011 -0.0603262 0 0 0 144 255 0 255 
0.0103075 -0.002546001 -0.0615953 0 0 0 144 255 0 255 
0.0121158 0.022812 -0.0724014 0 0 0 147 255 0 255 
0.0113906 0.023059 -0.0680677 0 0 0 145 255 0 255 
0.0106482 0.02163999 -0.0636313 0 0 0 145 255 0 255 
0.0108567 0.02402899 -0.06487741 0 0 0 145 255 0 255 
0.0119236 0.034839 -0.0712524 0 0 0 146 255 0 255 
0.0113127 0.03547399 -0.0676019 0 0 0 145 255 0 255 
0.0107197 0.038193 -0.0640583 0 0 0 145 255 0 255 
0.0102723 0.040844 -0.0613847 0 0 0 144 255 0 255 
0.011153 0.048033 -0.0666478 0 0 0 145 255 0 255 
0.009481731 0.04352499 -0.0566606 0 0 0 142 255 0 255 
0.0100878 0.051006 -0.0602821 0 0 0 144 255 0 255 
0.0103642 0.05317299 -0.0619339 0 0 0 144 255 0 255 
0.010017 0.054511 -0.0598594 0 0 0 143 255 0 255 
0.010227 0.058608 -0.061114 0 0 0 144 255 0 255 
0.00312926 0.04007499 -0.0186997 0 0 0 133 255 0 255 
0.00641505 0.101425 -0.0383348 0 0 0 138 255 0 255 
0.00655494 0.109931 -0.0391708 0 0 0 138 255 0 255 
0.00310035 0.072866 -0.018527 0 0 0 133 255 0 255 
-0.00103469 0.128167 0.00586806 0 0 0 127 255 0 255 
-0.00275919 0.07534399 0.0156482 0 0 0 124 255 0 255 
-0.00233335 0.05890299 0.0132331 0 0 0 124 255 0 255 
-0.00374998 0.068493 0.0212672 0 0 0 122 255 0 255 
-0.00358117 0.025719 0.0203099 0 0 0 122 255 0 255 
-0.00978347 0.057573 0.0554849 0 0 0 113 255 0 255 
-0.0110967 0.06352799 0.0629324 0 0 0 111 255 0 255 
-0.010327 0.05726099 0.0585674 0 0 0 112 255 0 255 
-0.0105786 0.057809 0.0599943 0 0 0 112 255 0 255 
-0.00973153 0.036944 0.0551903 0 0 0 113 255 0 255 
-0.0101366 0.035591 0.0574877 0 0 0 112 255 0 255 
-0.0105119 0.03650899 0.0596161 0 0 0 112 255 0 255 
-0.0101913 0.031852 0.05779791 0 0 0 112 255 0 255 
-0.0103677 0.03096399 0.058798 0 0 0 112 255 0 255 
-0.00995081 0.02733899 0.0564338 0 0 0 112 255 0 255 
-0.0102712 0.022191 0.058251 0 0 0 112 255 0 255 
-0.0105657 0.022569 0.0599213 0 0 0 112 255 0 255 
-0.0107684 0.02140299 0.0610709 0 0 0 112 255 0 255 
-0.0102514 0.01892699 0.0581385 0 0 0 112 255 0 255 
-0.0102554 0.01693399 0.0581611 0 0 0 112 255 0 255 
-0.0101034 0.01553299 0.0572993 0 0 0 112 255 0 255 
-0.0103181 0.014379 0.058517 0 0 0 112 255 0 255 
-0.009757521 0.01298699 0.0553377 0 0 0 113 255 0 255 
-0.0105898 0.01408199 0.0600578 0 0 0 112 255 0 255 
-0.010193 0.012666 0.0578074 0 0 0 112 255 0 255 
-0.00993849 0.009735989 0.056364 0 0 0 112 255 0 255 
-0.0102077 0.009724999 0.0578907 0 0 0 112 255 0 255 
-0.009997031 0.00835799 0.056696 0 0 0 112 255 0 255 
-0.00943051 0.006915999 0.0534831 0 0 0 113 255 0 255 
-0.0100816 0.007076001 0.0571754 0 0 0 112 255 0 255 
-0.0101802 0.005732989 0.0577349 0 0 0 112 255 0 255 
-0.0101859 0.004356992 0.0577673 0 0 0 112 255 0 255 
-0.010308 0.003012991 0.0584597 0 0 0 112 255 0 255 
-0.0101755 0.00187099 0.0577083 0 0 0 112 255 0 255 
-0.0100792 0.0004609943 0.0571618 0 0 0 112 255 0 255 
-0.0101019 -0.003286004 0.0572909 0 0 0 112 255 0 255 
-0.00991026 -0.01011901 0.0562039 0 0 0 112 255 0 255 
-0.009087331 -0.01511301 0.0515369 0 0 0 114 255 0 255 
-0.00747613 -0.01543601 0.0423992 0 0 0 116 255 0 255 
-0.00684343 -0.01556001 0.038811 0 0 0 118 255 0 255 
-0.00444934 -0.01470801 0.0252334 0 0 0 121 255 0 255 
-0.00244715 -0.014686 0.0138785 0 0 0 124 255 0 255 
0.0107589 -0.009197009 -0.0610168 0 0 0 145 255 0 255 
0.010915 -0.007332003 -0.0619018 0 0 0 145 255 0 255 
0.0111111 -0.006327009 -0.0630141 0 0 0 145 255 0 255 
0.0110295 -0.001741004 -0.0625515 0 0 0 145 255 0 255 
0.0109608 -0.0002410054 -0.0621619 0 0 0 145 255 0 255 
0.0109897 0.001301992 -0.0623255 0 0 0 145 255 0 255 
0.0109272 0.002726996 -0.0619714 0 0 0 145 255 0 255 
0.010995 0.004321992 -0.0623556 0 0 0 145 255 0 255 
0.0110556 0.005939996 -0.0626997 0 0 0 145 255 0 255 
0.0109898 0.00744499 -0.0623265 0 0 0 145 255 0 255 
0.0111712 0.008820998 -0.06335481 0 0 0 145 255 0 255 
0.0109624 0.01169399 -0.062171 0 0 0 145 255 0 255 
0.0109598 0.013247 -0.0621564 0 0 0 145 255 0 255 
0.010856 0.015842 -0.0615677 0 0 0 145 255 0 255 
0.0109059 0.01716299 -0.0618502 0 0 0 145 255 0 255 
0.0109952 0.01867399 -0.0623571 0 0 0 145 255 0 255 
0.010974 0.020373 -0.0622366 0 0 0 145 255 0 255 
0.0108862 0.02185299 -0.0617387 0 0 0 145 255 0 255 
0.0106485 0.021743 -0.0603908 0 0 0 145 255 0 255 
0.0110239 0.024014 -0.06251951 0 0 0 145 255 0 255 
0.0109755 0.02531699 -0.062245 0 0 0 145 255 0 255 
0.0109607 0.027509 -0.0621613 0 0 0 145 255 0 255 
0.0109898 0.02954099 -0.062326 0 0 0 145 255 0 255 
0.0108164 0.03051 -0.0613426 0 0 0 145 255 0 255 
0.0110463 0.031819 -0.0626466 0 0 0 145 255 0 255 
0.0107299 0.03176199 -0.0608526 0 0 0 145 255 0 255 
0.0108897 0.033335 -0.0617585 0 0 0 145 255 0 255 
0.0110149 0.034829 -0.0624684 0 0 0 145 255 0 255 
0.0107706 0.03499099 -0.0610831 0 0 0 145 255 0 255 
0.0105952 0.037922 -0.0600883 0 0 0 145 255 0 255 
0.0107441 0.039133 -0.0609328 0 0 0 145 255 0 255 
0.0109856 0.04181299 -0.0623024 0 0 0 145 255 0 255 
0.0110595 0.04520899 -0.0627216 0 0 0 145 255 0 255 
0.0107173 0.04431299 -0.060781 0 0 0 145 255 0 255 
0.0104152 0.04455199 -0.0590676 0 0 0 144 255 0 255 
0.0108485 0.04918699 -0.061525 0 0 0 145 255 0 255 
0.0108247 0.05100499 -0.0613901 0 0 0 145 255 0 255 
0.0110586 0.05412699 -0.0627163 0 0 0 145 255 0 255 
0.010599 0.05241799 -0.0601102 0 0 0 145 255 0 255 
0.0106082 0.05595599 -0.0601623 0 0 0 145 255 0 255 
0.0104943 0.057444 -0.0595164 0 0 0 144 255 0 255 
0.0108133 0.061631 -0.0613255 0 0 0 145 255 0 255 
0.0110447 0.063806 -0.0626374 0 0 0 145 255 0 255 
0.0111418 0.06532899 -0.0631881 0 0 0 145 255 0 255 
0.0106744 0.06478699 -0.0605377 0 0 0 145 255 0 255 
0.0104534 0.069009 -0.0592842 0 0 0 144 255 0 255 
0.0106989 0.07159499 -0.0606765 0 0 0 145 255 0 255 
0.0104065 0.070508 -0.0590183 0 0 0 144 255 0 255 
0.0105035 0.07312 -0.0595681 0 0 0 145 255 0 255 
0.0101935 0.07272299 -0.0578104 0 0 0 144 255 0 255 
0.0106336 0.077944 -0.0603062 0 0 0 145 255 0 255 
0.0107568 0.087709 -0.061005 0 0 0 145 255 0 255 
0.0103761 0.08901899 -0.0588456 0 0 0 144 255 0 255 
0.00746302 0.065304 -0.0423249 0 0 0 139 255 0 255 
0.00380854 0.03279799 -0.0215993 0 0 0 134 255 0 255 
0.00378358 0.034716 -0.0214578 0 0 0 134 255 0 255 
0.008568821 0.097878 -0.0485962 0 0 0 142 255 0 255 
0.00290983 0.03209 -0.0165025 0 0 0 133 255 0 255 
0.00262101 0.029 -0.0148645 0 0 0 132 255 0 255 
0.00347181 0.04224399 -0.0196896 0 0 0 133 255 0 255 
0.00704453 0.103141 -0.0399515 0 0 0 139 255 0 255 
0.00604663 0.120561 -0.0342922 0 0 0 137 255 0 255 
-0.00131724 0.108848 0.00747047 0 0 0 126 255 0 255 
-0.00132825 0.05461099 0.00753287 0 0 0 126 255 0 255 
-0.00254906 0.07231899 0.0144564 0 0 0 124 255 0 255 
-0.00264443 0.070275 0.0149973 0 0 0 124 255 0 255 
-0.00276095 0.06491499 0.0156581 0 0 0 124 255 0 255 
-0.0149787 0.219713 0.0849487 0 0 0 105 255 0 255 
-0.00379299 0.04307 0.0215111 0 0 0 122 255 0 255 
-0.0083215 0.091116 0.0471936 0 0 0 115 255 0 255 
-0.00346763 0.032856 0.0196659 0 0 0 123 255 0 255 
-0.010716 0.06630399 0.0607734 0 0 0 112 255 0 255 
-0.00999225 0.05550699 0.0566689 0 0 0 112 255 0 255 
-0.0267135 0.131703 0.1515 0 0 0 87 255 0 255 
-0.0107221 0.037042 0.0608082 0 0 0 112 255 0 255 
-0.0104842 0.027357 0.0594588 0 0 0 112 255 0 255 
-0.00980701 0.017247 0.0556184 0 0 0 113 255 0 255 
-0.0107533 0.01572 0.0609847 0 0 0 112 255 0 255 
-0.009922421 0.01158799 0.0562728 0 0 0 112 255 0 255 
-0.0103288 0.007102001 0.0585778 0 0 0 112 255 0 255 
-0.010236 -0.0007490039 0.0580514 0 0 0 112 255 0 255 
-0.00989229 -0.006927002 0.056102 0 0 0 112 255 0 255 
-0.006321331 -0.01518101 0.0358501 0 0 0 118 255 0 255 
-0.00330365 -0.014799 0.0187359 0 0 0 123 255 0 255 
0.00889183 -0.01049501 -0.0504281 0 0 0 142 255 0 255 
0.0109187 0.009371996 -0.0619231 0 0 0 145 255 0 255 
0.010701 0.025139 -0.0606885 0 0 0 145 255 0 255 
0.0110488 0.043492 -0.0626611 0 0 0 145 255 0 255 
0.0106774 0.042502 -0.0605547 0 0 0 145 255 0 255 
0.0108227 0.054403 -0.0613784 0 0 0 145 255 0 255 
0.0107808 0.057084 -0.0611408 0 0 0 145 255 0 255 
0.0106529 0.066353 -0.0604155 0 0 0 145 255 0 255 
0.0108563 0.08901 -0.0615691 0 0 0 145 255 0 255 
0.00407271 0.03687999 -0.0230975 0 0 0 134 255 0 255 
0.00378309 0.03608099 -0.021455 0 0 0 134 255 0 255 
0.00712076 0.101477 -0.0403839 0 0 0 139 255 0 255 
0.00689661 0.09982901 -0.0391126 0 0 0 139 255 0 255 
0.00658386 0.097087 -0.0373389 0 0 0 138 255 0 255 
0.00275882 0.064507 -0.015646 0 0 0 133 255 0 255 
0.00221796 0.06148399 -0.0125787 0 0 0 131 255 0 255 
0.0020332 0.06269499 -0.0115308 0 0 0 131 255 0 255 
-0.00364774 0.06748699 0.0196815 0 0 0 122 255 0 255 
-0.008100281 0.125012 0.0437052 0 0 0 115 255 0 255 
-0.00877218 0.09479699 0.0473305 0 0 0 115 255 0 255 
-0.0111087 0.104129 0.059937 0 0 0 111 255 0 255 
-0.00292709 0.021864 0.0157932 0 0 0 124 255 0 255 
-0.00280037 0.019712 0.0151095 0 0 0 124 255 0 255 
-0.011031 0.08732601 0.059518 0 0 0 111 255 0 255 
-0.0113629 0.08876 0.0613087 0 0 0 110 255 0 255 
-0.0113798 0.08543499 0.0613999 0 0 0 110 255 0 255 
-0.011247 0.08314099 0.0606834 0 0 0 111 255 0 255 
-0.00256644 0.013437 0.0138473 0 0 0 124 255 0 255 
-0.0109217 0.065327 0.0589282 0 0 0 111 255 0 255 
-0.010931 0.063699 0.0589782 0 0 0 111 255 0 255 
-0.0107765 0.061111 0.0581451 0 0 0 112 255 0 255 
-0.0108618 0.059197 0.0586051 0 0 0 111 255 0 255 
-0.0109797 0.05538199 0.059241 0 0 0 111 255 0 255 
-0.0108714 0.05413699 0.0586566 0 0 0 111 255 0 255 
-0.0108688 0.052722 0.0586431 0 0 0 111 255 0 255 
-0.0108777 0.05078499 0.0586908 0 0 0 111 255 0 255 
-0.0109046 0.048998 0.0588362 0 0 0 111 255 0 255 
-0.0107622 0.04701899 0.0580675 0 0 0 112 255 0 255 
-0.0111549 0.047743 0.0601863 0 0 0 111 255 0 255 
-0.0109193 0.04076999 0.0589155 0 0 0 111 255 0 255 
-0.0104632 0.037778 0.0564547 0 0 0 112 255 0 255 
-0.0107845 0.036535 0.0581881 0 0 0 112 255 0 255 
-0.0109479 0.03504699 0.0590695 0 0 0 111 255 0 255 
-0.0111063 0.031619 0.0599241 0 0 0 111 255 0 255 
-0.0109147 0.02905899 0.0588904 0 0 0 111 255 0 255 
-0.0107418 0.028096 0.0579574 0 0 0 112 255 0 255 
-0.0106913 0.02652299 0.0576849 0 0 0 112 255 0 255 
-0.010755 0.02499 0.0580289 0 0 0 112 255 0 255 
-0.0106685 0.02347499 0.057562 0 0 0 112 255 0 255 
-0.00372692 0.004618001 0.0201087 0 0 0 122 255 0 255 
-0.0106484 0.020863 0.0574537 0 0 0 112 255 0 255 
-0.0104606 0.004605997 0.0564406 0 0 0 112 255 0 255 
-0.0105521 0.003331995 0.0569341 0 0 0 112 255 0 255 
-0.0104696 -0.0008570075 0.0564888 0 0 0 112 255 0 255 
-0.0104331 -0.011333 0.0562922 0 0 0 112 255 0 255 
-0.0103844 -0.01269101 0.0560291 0 0 0 112 255 0 255 
-0.0103298 -0.01404101 0.0557344 0 0 0 112 255 0 255 
-0.00881737 -0.01545 0.0475743 0 0 0 115 255 0 255 
-0.00573127 -0.015637 0.0309232 0 0 0 119 255 0 255 
0.00230413 -0.013792 -0.012432 0 0 0 132 255 0 255 
0.00473488 -0.013379 -0.0255471 0 0 0 136 255 0 255 
0.00593775 -0.01278501 -0.0320372 0 0 0 137 255 0 255 
0.00671597 -0.012456 -0.0362361 0 0 0 139 255 0 255 
0.008137571 -0.011326 -0.0439064 0 0 0 141 255 0 255 
0.00955652 -0.01022301 -0.0515624 0 0 0 143 255 0 255 
0.0100162 -0.01011101 -0.0540425 0 0 0 143 255 0 255 
0.0106987 -0.009749007 -0.0577251 0 0 0 145 255 0 255 
0.0114438 -0.005617011 -0.0617454 0 0 0 145 255 0 255 
0.0114222 -0.003359008 -0.061629 0 0 0 145 255 0 255 
0.0112818 -0.001620007 -0.0608712 0 0 0 145 255 0 255 
0.0111911 -0.0001670003 -0.0603818 0 0 0 145 255 0 255 
0.0111987 0.02316699 -0.0604231 0 0 0 145 255 0 255 
0.0113174 0.02664299 -0.0610632 0 0 0 145 255 0 255 
0.0113521 0.02864699 -0.0612507 0 0 0 145 255 0 255 
0.0112197 0.036234 -0.0605364 0 0 0 145 255 0 255 
0.0109756 0.041844 -0.0592191 0 0 0 145 255 0 255 
0.0112112 0.045826 -0.0604905 0 0 0 145 255 0 255 
0.0112488 0.047139 -0.0606929 0 0 0 145 255 0 255 
0.0112786 0.059652 -0.0608541 0 0 0 145 255 0 255 
0.01127 0.063383 -0.0608076 0 0 0 145 255 0 255 
0.0114079 0.067651 -0.0615514 0 0 0 145 255 0 255 
0.0112111 0.07535399 -0.0604896 0 0 0 145 255 0 255 
0.0109283 0.074398 -0.0589638 0 0 0 145 255 0 255 
0.0107453 0.08536398 -0.0579765 0 0 0 145 255 0 255 
0.00353783 0.034151 -0.0190884 0 0 0 133 255 0 255 
0.00362581 0.036364 -0.0195631 0 0 0 133 255 0 255 
0.00370172 0.03782699 -0.0199727 0 0 0 133 255 0 255 
0.0027021 0.027255 -0.0145792 0 0 0 132 255 0 255 
0.0080919 0.09803998 -0.04366 0 0 0 141 255 0 255 
0.00841628 0.10413 -0.0454102 0 0 0 141 255 0 255 
0.00820449 0.105047 -0.0442674 0 0 0 141 255 0 255 
0.0040356 0.051946 -0.0217741 0 0 0 134 255 0 255 
0.00759702 0.112313 -0.0409899 0 0 0 140 255 0 255 
0.00292412 0.041933 -0.0157771 0 0 0 133 255 0 255 
0.00286292 0.058897 -0.0154469 0 0 0 133 255 0 255 
0.00276706 0.062104 -0.0149297 0 0 0 133 255 0 255 
0.00229671 0.057645 -0.0123919 0 0 0 132 255 0 255 
-0.00389362 0.06354699 0.0210081 0 0 0 122 255 0 255 
-0.00478534 0.07405299 0.0258194 0 0 0 121 255 0 255 
-0.00269234 0.033995 0.0145266 0 0 0 124 255 0 255 
-0.00389141 0.04655199 0.0209962 0 0 0 122 255 0 255 
-0.00340073 0.03594799 0.0183487 0 0 0 123 255 0 255 
-0.00313637 0.024438 0.0169224 0 0 0 123 255 0 255 
-0.00341504 0.02420499 0.0184259 0 0 0 123 255 0 255 
-0.00322897 0.01933199 0.017422 0 0 0 123 255 0 255 
-0.0105836 0.059643 0.0571039 0 0 0 112 255 0 255 
-0.0106707 0.051545 0.0575738 0 0 0 112 255 0 255 
-0.0108078 0.03959099 0.0583139 0 0 0 112 255 0 255 
-0.00379164 0.01025599 0.0204579 0 0 0 122 255 0 255 
-0.0110276 0.03776599 0.0594998 0 0 0 111 255 0 255 
-0.010576 0.013787 0.057063 0 0 0 112 255 0 255 
-0.006393101 -0.015433 0.0344941 0 0 0 118 255 0 255 
0.00151501 -0.014864 -0.00817429 0 0 0 130 255 0 255 
0.0035178 -0.01326901 -0.0189803 0 0 0 133 255 0 255 
0.00838096 -0.011157 -0.0452196 0 0 0 141 255 0 255 
0.009057621 -0.01044301 -0.0488705 0 0 0 142 255 0 255 
0.0113868 0.005736995 -0.061438 0 0 0 145 255 0 255 
0.0112788 0.020399 -0.0608548 0 0 0 145 255 0 255 
0.0110909 0.061709 -0.0598413 0 0 0 145 255 0 255 
0.0114655 0.06564499 -0.0618625 0 0 0 145 255 0 255 
0.0107205 0.06495199 -0.0578426 0 0 0 145 255 0 255 
0.0107998 0.066413 -0.0582703 0 0 0 145 255 0 255 
0.0109749 0.075832 -0.0592152 0 0 0 145 255 0 255 
0.0106949 0.076708 -0.0577044 0 0 0 145 255 0 255 
0.008153561 0.101048 -0.0439927 0 0 0 141 255 0 255 
0.00636742 0.1254 -0.0343555 0 0 0 138 255 0 255 
0.00641811 0.129361 -0.034629 0 0 0 138 255 0 255 
0.00225102 0.05504299 -0.0121454 0 0 0 131 255 0 255 
0.00259132 0.089435 -0.0139815 0 0 0 132 255 0 255 
-0.00143705 0.09942899 0.00739299 0 0 0 126 255 0 255 
-0.00282249 0.068527 0.0145205 0 0 0 124 255 0 255 
-0.00385497 0.077564 0.0198321 0 0 0 122 255 0 255 
-0.00323487 0.06085299 0.016642 0 0 0 123 255 0 255 
-0.00422246 0.029158 0.0217227 0 0 0 121 255 0 255 
-0.00302145 0.016745 0.015544 0 0 0 124 255 0 255 
-0.00330785 0.015569 0.0170174 0 0 0 123 255 0 255 
-0.011379 0.06240599 0.0585401 0 0 0 110 255 0 255 
-0.0116276 0.06150199 0.0598186 0 0 0 110 255 0 255 
-0.00423788 0.01380199 0.021802 0 0 0 121 255 0 255 
-0.00336857 0.009586001 0.0173298 0 0 0 123 255 0 255 
-0.0119035 0.042978 0.061238 0 0 0 109 255 0 255 
-0.011426 0.03370199 0.0587816 0 0 0 110 255 0 255 
-0.0111283 0.01960599 0.0572502 0 0 0 111 255 0 255 
-0.0111372 0.017625 0.0572958 0 0 0 111 255 0 255 
-0.011122 0.011576 0.0572178 0 0 0 111 255 0 255 
-0.0110147 0.001576996 0.0566659 0 0 0 111 255 0 255 
-0.0110345 -0.00215801 0.0567677 0 0 0 111 255 0 255 
-0.0109122 -0.003877008 0.0561383 0 0 0 111 255 0 255 
-0.0110669 -0.004936004 0.0569343 0 0 0 111 255 0 255 
-0.0110368 -0.007588005 0.0567794 0 0 0 111 255 0 255 
-0.0109456 -0.008948005 0.0563104 0 0 0 111 255 0 255 
-0.0106337 -0.014889 0.0547055 0 0 0 112 255 0 255 
-0.0102728 -0.015222 0.0528491 0 0 0 112 255 0 255 
-0.009514171 -0.015712 0.0489462 0 0 0 113 255 0 255 
-0.00874474 -0.01542201 0.0449878 0 0 0 115 255 0 255 
-0.00795672 -0.015494 0.0409338 0 0 0 115 255 0 255 
-0.00387172 -0.014951 0.0199183 0 0 0 122 255 0 255 
-0.00337515 -0.01475501 0.0173636 0 0 0 123 255 0 255 
-0.00242079 -0.01491201 0.0124539 0 0 0 124 255 0 255 
0.00561306 -0.013055 -0.0288767 0 0 0 136 255 0 255 
0.0067889 -0.012685 -0.0349259 0 0 0 139 255 0 255 
0.00730791 -0.01235801 -0.0375959 0 0 0 139 255 0 255 
0.00780997 -0.01184901 -0.0401788 0 0 0 140 255 0 255 
0.008221051 -0.01168001 -0.0422936 0 0 0 141 255 0 255 
0.00917114 -0.01068901 -0.0471814 0 0 0 142 255 0 255 
0.0108907 -0.01005701 -0.0560278 0 0 0 145 255 0 255 
0.0115484 -0.009630001 -0.0594112 0 0 0 146 255 0 255 
0.0118902 -0.008266008 -0.0611696 0 0 0 146 255 0 255 
0.0118635 -0.006764007 -0.0610327 0 0 0 146 255 0 255 
0.0119907 0.0007049918 -0.061687 0 0 0 147 255 0 255 
0.0119643 0.003672993 -0.061551 0 0 0 147 255 0 255 
0.0119184 0.007494998 -0.0613149 0 0 0 146 255 0 255 
0.0119577 0.010262 -0.061517 0 0 0 147 255 0 255 
0.0119186 0.01261699 -0.0613157 0 0 0 146 255 0 255 
0.0119114 0.014159 -0.0612791 0 0 0 146 255 0 255 
0.0118803 0.016591 -0.0611188 0 0 0 146 255 0 255 
0.0119162 0.018426 -0.0613033 0 0 0 146 255 0 255 
0.0118501 0.02437199 -0.0609633 0 0 0 146 255 0 255 
0.0118287 0.033925 -0.0608534 0 0 0 146 255 0 255 
0.0115186 0.038658 -0.059258 0 0 0 146 255 0 255 
0.0117965 0.04022599 -0.0606876 0 0 0 146 255 0 255 
0.011573 0.043245 -0.0595378 0 0 0 146 255 0 255 
0.0118042 0.049732 -0.0607271 0 0 0 146 255 0 255 
0.011975 0.05188099 -0.061606 0 0 0 147 255 0 255 
0.0117526 0.05357699 -0.0604618 0 0 0 146 255 0 255 
0.011813 0.05583899 -0.0607727 0 0 0 146 255 0 255 
0.0117424 0.057623 -0.0604092 0 0 0 146 255 0 255 
0.0115977 0.059051 -0.059665 0 0 0 146 255 0 255 
0.0115833 0.064527 -0.0595907 0 0 0 146 255 0 255 
0.0115347 0.06593499 -0.0593411 0 0 0 146 255 0 255 
0.0116791 0.07025 -0.0600838 0 0 0 146 255 0 255 
0.0115891 0.071527 -0.059621 0 0 0 146 255 0 255 
0.0118862 0.074375 -0.0611491 0 0 0 146 255 0 255 
0.0112323 0.075466 -0.057785 0 0 0 145 255 0 255 
0.00296669 0.03043899 -0.0152623 0 0 0 133 255 0 255 
0.008162821 0.100884 -0.0419941 0 0 0 141 255 0 255 
-0.00375813 0.075114 0.0193339 0 0 0 122 255 0 255 
-0.00407476 0.071682 0.0209628 0 0 0 121 255 0 255 
-0.00375242 0.042922 0.0193046 0 0 0 122 255 0 255 
-0.0118847 0.09000199 0.0611418 0 0 0 109 255 0 255 
-0.0116075 0.056635 0.0597157 0 0 0 110 255 0 255 
-0.00401569 0.01285599 0.0206589 0 0 0 122 255 0 255 
-0.0116479 0.04323299 0.0599231 0 0 0 110 255 0 255 
-0.011257 0.03267599 0.0579121 0 0 0 111 255 0 255 
-0.00388133 0.007161999 0.0199677 0 0 0 122 255 0 255 
-0.00982624 -0.015712 0.0505516 0 0 0 113 255 0 255 
-0.00845501 -0.01533201 0.0434973 0 0 0 115 255 0 255 
0.00341192 -0.013267 -0.0175528 0 0 0 133 255 0 255 
0.00647321 -0.012754 -0.0333018 0 0 0 138 255 0 255 
0.0119803 0.03125 -0.0616333 0 0 0 147 255 0 255 
0.0117987 0.04839699 -0.0606992 0 0 0 146 255 0 255 
0.0113946 0.05576899 -0.0586203 0 0 0 145 255 0 255 
0.0114964 0.067282 -0.0591437 0 0 0 146 255 0 255 
0.0115396 0.078623 -0.059366 0 0 0 146 255 0 255 
0.0112074 0.080462 -0.0576572 0 0 0 145 255 0 255 
0.008527311 0.103561 -0.0438692 0 0 0 141 255 0 255 
0.00402241 0.049033 -0.0206935 0 0 0 134 255 0 255 
0.00826713 0.121274 -0.0425307 0 0 0 141 255 0 255 
0.00250972 0.06639899 -0.0129114 0 0 0 132 255 0 255 
-0.00412865 0.069993 0.020293 0 0 0 121 255 0 255 
-0.00385803 0.04045199 0.0189628 0 0 0 122 255 0 255 
-0.0037291 0.02945 0.0183291 0 0 0 122 255 0 255 
-0.0119002 0.101859 0.0584915 0 0 0 109 255 0 255 
-0.0046937 0.03133999 0.0230703 0 0 0 121 255 0 255 
-0.0122545 0.087427 0.0602328 0 0 0 109 255 0 255 
-0.00366188 0.022296 0.0179987 0 0 0 122 255 0 255 
-0.0120185 0.08109301 0.0590727 0 0 0 109 255 0 255 
-0.00265038 0.012403 0.0130271 0 0 0 124 255 0 255 
-0.012429 0.072676 0.0610905 0 0 0 109 255 0 255 
-0.00407295 0.019239 0.0200192 0 0 0 121 255 0 255 
-0.0118797 0.06002799 0.0583908 0 0 0 109 255 0 255 
-0.0121043 0.05884 0.0594943 0 0 0 109 255 0 255 
-0.0116587 0.055162 0.0573045 0 0 0 110 255 0 255 
-0.0117259 0.048191 0.0576348 0 0 0 110 255 0 255 
-0.0119166 0.046503 0.058572 0 0 0 109 255 0 255 
-0.0122208 0.04193 0.0600671 0 0 0 109 255 0 255 
-0.0118312 0.035595 0.058152 0 0 0 109 255 0 255 
-0.0117526 0.03086 0.0577661 0 0 0 110 255 0 255 
-0.0118195 0.027273 0.0580945 0 0 0 109 255 0 255 
-0.0118571 0.023847 0.0582794 0 0 0 109 255 0 255 
-0.0117567 0.02234199 0.057786 0 0 0 110 255 0 255 
-0.0117183 0.016248 0.0575973 0 0 0 110 255 0 255 
-0.0115423 0.01514699 0.0567322 0 0 0 110 255 0 255 
-0.0114841 0.01029999 0.0564463 0 0 0 110 255 0 255 
-0.0115897 0.009024001 0.0569653 0 0 0 110 255 0 255 
-0.0115144 0.00754 0.0565949 0 0 0 110 255 0 255 
-0.011549 0.006194997 0.0567652 0 0 0 110 255 0 255 
-0.0115545 0.0003250003 0.0567924 0 0 0 110 255 0 255 
-0.0115606 -0.006265008 0.0568221 0 0 0 110 255 0 255 
-0.0115591 -0.010072 0.0568146 0 0 0 110 255 0 255 
-0.0115548 -0.01218001 0.0567935 0 0 0 110 255 0 255 
-0.00754003 -0.015311 0.0370604 0 0 0 116 255 0 255 
-0.0067379 -0.01553401 0.0331179 0 0 0 118 255 0 255 
-0.00487936 -0.01542001 0.0239828 0 0 0 121 255 0 255 
0.00223276 -0.01373 -0.0109744 0 0 0 131 255 0 255 
0.00623969 -0.012985 -0.0306691 0 0 0 138 255 0 255 
0.0126 -0.00486201 -0.0619311 0 0 0 148 255 0 255 
0.0123319 -0.002638006 -0.0606132 0 0 0 147 255 0 255 
0.0124977 0.002210999 -0.0614282 0 0 0 148 255 0 255 
0.0126046 0.004942 -0.0619538 0 0 0 148 255 0 255 
0.0124826 0.008736992 -0.0613538 0 0 0 148 255 0 255 
0.0126511 0.02209899 -0.062182 0 0 0 148 255 0 255 
0.0123665 0.022373 -0.0607833 0 0 0 147 255 0 255 
0.0125787 0.026457 -0.0618263 0 0 0 148 255 0 255 
0.0122048 0.028324 -0.0599886 0 0 0 147 255 0 255 
0.0124826 0.029527 -0.0613539 0 0 0 148 255 0 255 
0.0126201 0.03294 -0.0620299 0 0 0 148 255 0 255 
0.0125737 0.03595699 -0.0618019 0 0 0 148 255 0 255 
0.012259 0.03706299 -0.0602549 0 0 0 147 255 0 255 
0.0123207 0.03837199 -0.0605584 0 0 0 147 255 0 255 
0.0124281 0.04154999 -0.0610861 0 0 0 147 255 0 255 
0.0125885 0.04763 -0.0618743 0 0 0 148 255 0 255 
0.0122001 0.05107399 -0.0599655 0 0 0 147 255 0 255 
0.0125885 0.054267 -0.06187451 0 0 0 148 255 0 255 
0.0125057 0.058138 -0.0614675 0 0 0 148 255 0 255 
0.0120723 0.06036199 -0.0593374 0 0 0 147 255 0 255 
0.0124971 0.07020099 -0.0614254 0 0 0 148 255 0 255 
0.012471 0.07276399 -0.0612969 0 0 0 148 255 0 255 
0.0127363 0.07731999 -0.0626011 0 0 0 148 255 0 255 
0.0117431 0.073699 -0.0577194 0 0 0 146 255 0 255 
0.00421771 0.03046999 -0.0207307 0 0 0 135 255 0 255 
0.00364391 0.03237 -0.0179104 0 0 0 133 255 0 255 
0.00272348 0.02515 -0.0133864 0 0 0 132 255 0 255 
0.009285321 0.108841 -0.0456388 0 0 0 142 255 0 255 
0.00821397 0.104826 -0.040373 0 0 0 141 255 0 255 
0.00681326 0.121982 -0.0334882 0 0 0 139 255 0 255 
0.00241488 0.05049299 -0.0118695 0 0 0 132 255 0 255 
0.00119226 0.13197 -0.00586015 0 0 0 130 255 0 255 
-0.00186367 0.109017 0.009160249 0 0 0 125 255 0 255 
-0.00298057 0.06174599 0.01465 0 0 0 124 255 0 255 
-0.0106426 0.100907 0.05231 0 0 0 112 255 0 255 
-0.0126037 0.09142399 0.0619491 0 0 0 109 255 0 255 
-0.0122961 0.08206899 0.0604375 0 0 0 109 255 0 255 
-0.00346552 0.016951 0.0170336 0 0 0 123 255 0 255 
-0.0120778 0.066089 0.0593642 0 0 0 109 255 0 255 
-0.0121004 0.05234499 0.0594756 0 0 0 109 255 0 255 
-0.011841 0.04978299 0.0582003 0 0 0 109 255 0 255 
-0.0121763 0.04039899 0.0598485 0 0 0 109 255 0 255 
-0.0119545 0.03698599 0.0587582 0 0 0 109 255 0 255 
-0.00440886 0.007896996 0.0216702 0 0 0 121 255 0 255 
-0.0115002 0.012911 0.0565252 0 0 0 110 255 0 255 
-0.0116294 0.004499996 0.0571605 0 0 0 110 255 0 255 
-0.0116801 0.002778995 0.0574097 0 0 0 110 255 0 255 
-0.00596889 -0.01541801 0.0293381 0 0 0 119 255 0 255 
-0.00533867 -0.015045 0.0262404 0 0 0 120 255 0 255 
0.00328295 -0.01321001 -0.0161362 0 0 0 133 255 0 255 
0.00789129 -0.01202401 -0.038787 0 0 0 140 255 0 255 
0.0102124 -0.01032801 -0.0501953 0 0 0 144 255 0 255 
0.0123913 -0.000722003 -0.0609052 0 0 0 147 255 0 255 
0.0126418 0.006251991 -0.0621365 0 0 0 148 255 0 255 
0.0125956 0.015756 -0.0619095 0 0 0 148 255 0 255 
0.0123669 0.025674 -0.0607851 0 0 0 147 255 0 255 
0.0124637 0.02780399 -0.0612612 0 0 0 148 255 0 255 
0.0124137 0.04475 -0.0610155 0 0 0 147 255 0 255 
0.012621 0.04990799 -0.0620342 0 0 0 148 255 0 255 
0.012446 0.06107299 -0.0611742 0 0 0 148 255 0 255 
0.0123609 0.065387 -0.0607557 0 0 0 147 255 0 255 
0.0126988 0.074539 -0.0624168 0 0 0 148 255 0 255 
0.0112823 0.07889899 -0.0554543 0 0 0 145 255 0 255 
0.00405969 0.04770299 -0.019954 0 0 0 134 255 0 255 
0.00815891 0.113429 -0.0401023 0 0 0 141 255 0 255 
0.00281746 0.085503 -0.0138483 0 0 0 133 255 0 255 
-0.00269538 0.05470899 0.0126808 0 0 0 124 255 0 255 
-0.0035927 0.06304 0.0169024 0 0 0 122 255 0 255 
-0.00369702 0.03458999 0.0173931 0 0 0 122 255 0 255 
-0.0035682 0.03201499 0.0167871 0 0 0 122 255 0 255 
-0.00408382 0.03098899 0.0192129 0 0 0 121 255 0 255 
-0.00335895 0.02377499 0.0158026 0 0 0 123 255 0 255 
-0.0122923 0.071015 0.0578305 0 0 0 109 255 0 255 
-0.00489124 0.024842 0.0230115 0 0 0 121 255 0 255 
-0.00475552 0.02201799 0.022373 0 0 0 121 255 0 255 
-0.0122783 0.06383999 0.0577648 0 0 0 109 255 0 255 
-0.0122638 0.06137899 0.0576967 0 0 0 109 255 0 255 
-0.0127017 0.062849 0.0597566 0 0 0 109 255 0 255 
-0.0122369 0.057293 0.0575701 0 0 0 109 255 0 255 
-0.0124271 0.05529499 0.0584647 0 0 0 109 255 0 255 
-0.0122358 0.05295999 0.0575648 0 0 0 109 255 0 255 
-0.0126424 0.054107 0.0594776 0 0 0 109 255 0 255 
-0.0121548 0.051209 0.0571837 0 0 0 109 255 0 255 
-0.0126784 0.05027 0.0596473 0 0 0 109 255 0 255 
-0.0126201 0.047418 0.0593727 0 0 0 109 255 0 255 
-0.0124581 0.04319899 0.0586108 0 0 0 109 255 0 255 
-0.0122566 0.03439 0.057663 0 0 0 109 255 0 255 
-0.0127118 0.032835 0.0598043 0 0 0 109 255 0 255 
-0.0125092 0.029388 0.0588514 0 0 0 109 255 0 255 
-0.0122245 0.02585299 0.0575118 0 0 0 109 255 0 255 
-0.0125229 0.02568999 0.0589158 0 0 0 109 255 0 255 
-0.0122043 0.02075299 0.0574166 0 0 0 109 255 0 255 
-0.0123045 0.019363 0.0578883 0 0 0 109 255 0 255 
-0.0123585 0.014314 0.0581421 0 0 0 109 255 0 255 
-0.0123078 0.012746 0.0579036 0 0 0 109 255 0 255 
-0.012391 0.010969 0.0582953 0 0 0 109 255 0 255 
-0.0117208 0.009055996 0.0551423 0 0 0 110 255 0 255 
-0.0122918 0.008309997 0.0578283 0 0 0 109 255 0 255 
-0.0124158 0.006946993 0.0584118 0 0 0 109 255 0 255 
-0.0124312 0.004870999 0.058484 0 0 0 109 255 0 255 
-0.0123294 -0.0001370072 0.0580051 0 0 0 109 255 0 255 
-0.0118579 -0.0006370068 0.055787 0 0 0 109 255 0 255 
-0.0124746 -0.001527 0.0586884 0 0 0 109 255 0 255 
-0.0122978 -0.002547002 0.0578566 0 0 0 109 255 0 255 
-0.012097 -0.003603006 0.0569118 0 0 0 109 255 0 255 
-0.011726 -0.004692006 0.0551667 0 0 0 110 255 0 255 
-0.0124738 -0.005719006 0.0586846 0 0 0 109 255 0 255 
-0.0117602 -0.007037008 0.0553273 0 0 0 110 255 0 255 
-0.017444 -0.01660501 0.0820678 0 0 0 101 255 0 255 
-0.0164223 -0.016364 0.0772607 0 0 0 103 255 0 255 
-0.0160569 -0.016627 0.075542 0 0 0 103 255 0 255 
-0.0127567 -0.014581 0.0600157 0 0 0 109 255 0 255 
-0.0123535 -0.014677 0.0581188 0 0 0 109 255 0 255 
-0.0120418 -0.01514701 0.0566522 0 0 0 109 255 0 255 
-0.0109887 -0.015573 0.051698 0 0 0 111 255 0 255 
-0.00891088 -0.015388 0.0419224 0 0 0 114 255 0 255 
-0.00826357 -0.01546401 0.0388771 0 0 0 115 255 0 255 
-0.00749799 -0.01563901 0.0352753 0 0 0 116 255 0 255 
-0.00591273 -0.014862 0.0278172 0 0 0 119 255 0 255 
-0.00234638 -0.014575 0.0110389 0 0 0 124 255 0 255 
0.00515723 -0.01311901 -0.0242629 0 0 0 136 255 0 255 
0.00570323 -0.01309301 -0.0268316 0 0 0 137 255 0 255 
0.00971435 -0.01094401 -0.0457024 0 0 0 143 255 0 255 
0.0111823 -0.009824002 -0.0526088 0 0 0 145 255 0 255 
0.0116849 -0.009732008 -0.054973 0 0 0 146 255 0 255 
0.0121046 -0.009582007 -0.0569477 0 0 0 147 255 0 255 
0.0127168 -0.009075999 -0.0598277 0 0 0 148 255 0 255 
0.0131938 -0.007286001 -0.0620721 0 0 0 148 255 0 255 
0.0135125 -0.003937006 -0.0635711 0 0 0 149 255 0 255 
0.0130742 -0.003560007 -0.0615094 0 0 0 148 255 0 255 
0.0132294 -0.002014005 -0.0622395 0 0 0 148 255 0 255 
0.0125153 -0.001450002 -0.05888 0 0 0 148 255 0 255 
0.0134341 0.001078999 -0.0632026 0 0 0 149 255 0 255 
0.0127473 0.001916993 -0.0599712 0 0 0 148 255 0 255 
0.0134206 0.002639997 -0.0631389 0 0 0 149 255 0 255 
0.013636 0.003997994 -0.0641524 0 0 0 149 255 0 255 
0.0126456 0.007028997 -0.0594929 0 0 0 148 255 0 255 
0.0132152 0.009966994 -0.0621727 0 0 0 148 255 0 255 
0.0125745 0.01035999 -0.0591584 0 0 0 148 255 0 255 
0.0124354 0.01243299 -0.0585041 0 0 0 147 255 0 255 
0.0134518 0.01424099 -0.0632857 0 0 0 149 255 0 255 
0.0135651 0.01651399 -0.0638186 0 0 0 149 255 0 255 
0.0132393 0.01856999 -0.0622862 0 0 0 148 255 0 255 
0.0143636 0.02151899 -0.0675753 0 0 0 150 255 0 255 
0.0146698 0.022971 -0.069016 0 0 0 151 255 0 255 
0.0135489 0.02215999 -0.0637428 0 0 0 149 255 0 255 
0.0136754 0.02428499 -0.0643379 0 0 0 149 255 0 255 
0.0128134 0.02373799 -0.0602822 0 0 0 148 255 0 255 
0.0132129 0.02505699 -0.062162 0 0 0 148 255 0 255 
0.0138208 0.028414 -0.06502181 0 0 0 149 255 0 255 
0.0135502 0.02919799 -0.0637486 0 0 0 149 255 0 255 
0.012164 0.02618899 -0.0572272 0 0 0 147 255 0 255 
0.0124211 0.02726899 -0.0584367 0 0 0 147 255 0 255 
0.0169403 0.04086399 -0.079698 0 0 0 154 255 0 255 
0.0164443 0.04020499 -0.0773645 0 0 0 154 255 0 255 
0.0136602 0.034575 -0.0642662 0 0 0 149 255 0 255 
0.0131715 0.03420299 -0.0619669 0 0 0 148 255 0 255 
0.014456 0.038658 -0.0680103 0 0 0 151 255 0 255 
0.0140168 0.038991 -0.0659439 0 0 0 150 255 0 255 
0.0136048 0.039973 -0.0640057 0 0 0 149 255 0 255 
0.0133108 0.040771 -0.0626224 0 0 0 148 255 0 255 
0.0149897 0.04920399 -0.0705211 0 0 0 151 255 0 255 
0.0140839 0.04651099 -0.0662595 0 0 0 150 255 0 255 
0.0138161 0.04703399 -0.0649997 0 0 0 149 255 0 255 
0.0132104 0.04588 -0.0621501 0 0 0 148 255 0 255 
0.0148941 0.05524199 -0.07007121 0 0 0 151 255 0 255 
0.0137476 0.05184799 -0.0646773 0 0 0 149 255 0 255 
0.0132439 0.05247999 -0.0623077 0 0 0 148 255 0 255 
0.0134242 0.053906 -0.0631558 0 0 0 149 255 0 255 
0.0156916 0.06553199 -0.0738233 0 0 0 152 255 0 255 
0.014372 0.060312 -0.0676152 0 0 0 150 255 0 255 
0.0135359 0.05800699 -0.0636814 0 0 0 149 255 0 255 
0.0132859 0.070484 -0.0625052 0 0 0 148 255 0 255 
0.0145382 0.085921 -0.0683969 0 0 0 151 255 0 255 
0.009928021 0.09653199 -0.0467077 0 0 0 143 255 0 255 
0.00256348 0.024312 -0.0120602 0 0 0 132 255 0 255 
0.00227971 0.02292399 -0.0107252 0 0 0 132 255 0 255 
0.00800977 0.100485 -0.037683 0 0 0 140 255 0 255 
-0.00298488 0.07390499 0.0140428 0 0 0 124 255 0 255 
-0.00399311 0.071321 0.0187861 0 0 0 122 255 0 255 
-0.00350161 0.037483 0.0164738 0 0 0 123 255 0 255 
-0.0042711 0.04428999 0.020094 0 0 0 121 255 0 255 
-0.00987435 0.09210799 0.0464552 0 0 0 112 255 0 255 
-0.00510705 0.03246599 0.0240268 0 0 0 120 255 0 255 
-0.00454386 0.021046 0.0213772 0 0 0 121 255 0 255 
-0.012863 0.06696099 0.0605159 0 0 0 108 255 0 255 
-0.012551 0.06429299 0.0590477 0 0 0 109 255 0 255 
-0.0129318 0.06561299 0.0608395 0 0 0 108 255 0 255 
-0.012853 0.05289999 0.0604686 0 0 0 108 255 0 255 
-0.0124867 0.048603 0.0587452 0 0 0 109 255 0 255 
-0.0129127 0.047928 0.0607493 0 0 0 108 255 0 255 
-0.0126572 0.035103 0.0595476 0 0 0 109 255 0 255 
-0.0123607 0.001445997 0.0581524 0 0 0 109 255 0 255 
-0.0122055 -0.008334005 0.0574226 0 0 0 109 255 0 255 
-0.0128241 -0.008840001 0.0603327 0 0 0 108 255 0 255 
-0.0226143 -0.01763301 0.106392 0 0 0 93 255 0 255 
-0.0214616 -0.017674 0.100969 0 0 0 95 255 0 255 
-0.0167435 -0.016856 0.0787721 0 0 0 102 255 0 255 
-0.00984708 -0.01544501 0.0463269 0 0 0 113 255 0 255 
-0.00453142 -0.01456101 0.0213187 0 0 0 121 255 0 255 
0.0109088 -0.009937 -0.0513217 0 0 0 145 255 0 255 
0.0133669 -0.006053007 -0.0628865 0 0 0 148 255 0 255 
0.0126632 -0.0001399994 -0.0595755 0 0 0 148 255 0 255 
0.0128863 0.01321199 -0.0606252 0 0 0 148 255 0 255 
0.0137293 0.019116 -0.0645913 0 0 0 149 255 0 255 
0.0142765 0.024412 -0.06716561 0 0 0 150 255 0 255 
0.012459 0.021445 -0.0586148 0 0 0 148 255 0 255 
0.0127619 0.02695299 -0.0600398 0 0 0 148 255 0 255 
0.0118878 0.02612499 -0.0559279 0 0 0 146 255 0 255 
0.0138186 0.031652 -0.0650114 0 0 0 149 255 0 255 
0.0160712 0.039515 -0.0756093 0 0 0 153 255 0 255 
0.0142244 0.034899 -0.0669207 0 0 0 150 255 0 255 
0.0140623 0.03715999 -0.0661578 0 0 0 150 255 0 255 
0.0164091 0.05393499 -0.0771988 0 0 0 154 255 0 255 
0.0134844 0.04647299 -0.0634393 0 0 0 149 255 0 255 
0.0141499 0.05110199 -0.0665701 0 0 0 150 255 0 255 
0.0145624 0.05403199 -0.0685105 0 0 0 151 255 0 255 
0.0148556 0.062656 -0.0698899 0 0 0 151 255 0 255 
0.0132194 0.064234 -0.0621922 0 0 0 148 255 0 255 
0.0140558 0.07124399 -0.0661275 0 0 0 150 255 0 255 
0.0133881 0.072941 -0.0629861 0 0 0 148 255 0 255 
